ply
format ascii 1.0
comment Written by HALCON (export v1.0)
element vertex 580
property float x
property float y
property float z
property float nx
property float ny
property float nz
end_header
1.297999e+00 -2.200868e+00 -2.000000e+01 -0.000000e+00 -0.000000e+00 1.000000e+00
2.466162e+00 -2.321231e+00 -2.000000e+01 -0.000000e+00 -0.000000e+00 1.000000e+00
-3.931745e+00 -4.116682e-02 -2.000000e+01 -0.000000e+00 -0.000000e+00 1.000000e+00
-2.655356e+00 -8.644729e-02 -2.000000e+01 -0.000000e+00 -0.000000e+00 1.000000e+00
-1.453190e+00 -4.086225e-01 -2.000000e+01 -0.000000e+00 -0.000000e+00 1.000000e+00
-3.401786e-01 -2.622389e-01 -2.000000e+01 -0.000000e+00 -0.000000e+00 1.000000e+00
5.504208e-01 -9.455811e-01 -2.000000e+01 -0.000000e+00 -0.000000e+00 1.000000e+00
1.229157e+00 -1.581568e-02 -2.000000e+01 -0.000000e+00 -0.000000e+00 1.000000e+00
1.808190e+00 -1.060325e+00 -2.000000e+01 -0.000000e+00 -0.000000e+00 1.000000e+00
2.486926e+00 -1.305593e-01 -2.000000e+01 -0.000000e+00 -0.000000e+00 1.000000e+00
3.065959e+00 -1.175068e+00 -2.000000e+01 -0.000000e+00 -0.000000e+00 1.000000e+00
3.744696e+00 -2.453033e-01 -2.000000e+01 -0.000000e+00 -0.000000e+00 1.000000e+00
3.843659e+00 -2.029966e+00 -1.986450e+01 -6.890658e-01 1.847070e-01 7.007651e-01
-3.441589e+00 -1.058869e+00 -2.000000e+01 -0.000000e+00 -0.000000e+00 1.000000e+00
-3.781530e+00 1.078083e+00 -2.000000e+01 -0.000000e+00 -0.000000e+00 9.999998e-01
-2.304017e+00 9.800109e-01 -2.000000e+01 -0.000000e+00 -0.000000e+00 9.999998e-01
-1.053759e+00 1.018802e+00 -2.000000e+01 -0.000000e+00 -0.000000e+00 9.999998e-01
2.237521e-01 8.506779e-01 -2.000000e+01 -0.000000e+00 -0.000000e+00 9.999998e-01
1.658095e+00 1.080364e+00 -2.000000e+01 -0.000000e+00 -0.000000e+00 9.999998e-01
2.935606e+00 9.122398e-01 -2.000000e+01 -0.000000e+00 -0.000000e+00 9.999998e-01
4.217296e+00 5.744277e-01 -1.995704e+01 -7.040591e-01 -9.273219e-02 7.040606e-01
-3.362747e+00 2.103781e+00 -2.000000e+01 -0.000000e+00 -0.000000e+00 9.999999e-01
-1.705907e+00 1.991577e+00 -2.000000e+01 -0.000000e+00 -0.000000e+00 9.999999e-01
-4.990491e-01 1.993785e+00 -2.000000e+01 -0.000000e+00 -0.000000e+00 9.999999e-01
7.784383e-01 1.825479e+00 -2.000000e+01 -0.000000e+00 -0.000000e+00 9.999999e-01
2.317389e+00 1.997885e+00 -2.000000e+01 -0.000000e+00 -0.000000e+00 9.999999e-01
3.594876e+00 1.829579e+00 -2.000000e+01 -0.000000e+00 -0.000000e+00 9.999999e-01
-2.695213e+00 2.983719e+00 -2.000000e+01 -0.000000e+00 -0.000000e+00 9.999999e-01
-1.175828e+00 2.999303e+00 -2.000000e+01 -0.000000e+00 -0.000000e+00 9.999999e-01
-2.904291e-02 3.001546e+00 -2.000000e+01 -0.000000e+00 -0.000000e+00 9.999999e-01
1.248466e+00 2.833406e+00 -2.000000e+01 -0.000000e+00 -0.000000e+00 9.999999e-01
2.411233e+00 3.249429e+00 -2.000000e+01 -0.000000e+00 -0.000000e+00 1.000000e+00
3.180198e+00 3.132877e+00 -1.965985e+01 -6.339720e-01 -5.579081e-01 5.355539e-01
-8.250166e-01 4.083670e+00 -2.000000e+01 -0.000000e+00 -0.000000e+00 9.999999e-01
6.259950e-01 3.963769e+00 -2.000000e+01 -0.000000e+00 -0.000000e+00 9.999999e-01
1.765681e+00 3.915177e+00 -1.990674e+01 -2.914138e-01 -7.035352e-01 6.481636e-01
-1.807810e+00 3.833468e+00 -1.998125e+01 2.616704e-01 -6.317284e-01 7.296903e-01
-2.062205e-01 4.591092e+00 -1.953861e+01 9.909969e-02 -7.749206e-01 6.242414e-01
-3.579237e+00 3.015271e+00 -1.955856e+01 5.483765e-01 -4.207345e-01 7.226797e-01
-4.651606e+00 1.010156e+00 -1.947748e+01 6.960022e-01 -9.167100e-02 7.121639e-01
-4.248545e+00 2.039068e+00 -1.940218e+01 6.498051e-01 -3.349976e-01 6.822976e-01
-4.708721e+00 -1.063459e+00 -1.941030e+01 6.987014e-01 9.202653e-02 7.094697e-01
-3.736237e+00 -3.013191e+00 -1.944048e+01 5.484541e-01 4.207940e-01 7.225860e-01
-2.760416e+00 -3.784913e+00 -1.946959e+01 4.595662e-01 5.874044e-01 6.661494e-01
4.581608e+00 -1.844716e+00 -1.719499e+01 -9.752313e-01 2.211877e-01 3.866029e-08
4.858840e+00 -6.223825e-01 -1.741803e+01 -9.752313e-01 2.211877e-01 3.866029e-08
4.582516e+00 1.842663e+00 -1.755508e+01 -9.752817e-01 -2.209653e-01 7.166253e-09
4.859451e+00 6.203462e-01 -1.733208e+01 -9.752817e-01 -2.209653e-01 7.166253e-09
4.228847e+00 -1.186544e+00 -1.678651e+01 -5.419748e-01 1.636179e-01 -8.243133e-01
4.361810e+00 3.141298e-02 -1.668879e+01 -5.021291e-01 -7.181387e-02 -8.618057e-01
4.513881e+00 1.296143e+00 -1.688278e+01 -5.021291e-01 -7.181387e-02 -8.618057e-01
4.291633e+00 -9.498830e-01 -1.807672e+01 -5.630988e-01 8.707494e-02 8.217893e-01
4.167761e+00 1.036679e+00 -1.802220e+01 -5.067769e-01 -1.356613e-01 8.513362e-01
4.041917e+00 -2.751973e+00 -1.746736e+01 -7.854994e-01 6.188623e-01 4.155802e-04
3.378392e+00 -3.593930e+00 -1.781278e+01 -7.854994e-01 6.188623e-01 4.155802e-04
3.817197e+00 -2.126009e+00 -1.817222e+01 -4.427800e-01 2.970139e-01 8.460074e-01
2.460743e+00 -4.224791e+00 -1.757245e+01 -4.416209e-01 8.971630e-01 8.331537e-03
1.506869e+00 -4.691138e+00 -1.791595e+01 -4.416209e-01 8.971630e-01 8.331537e-03
2.193434e+00 -3.798369e+00 -1.828331e+01 -2.841874e-01 4.878536e-01 8.253704e-01
3.852631e-01 -4.874742e+00 -1.768081e+01 -9.669205e-03 9.999448e-01 4.112477e-03
-6.818623e-01 -4.883641e+00 -1.802597e+01 -9.669205e-03 9.999448e-01 4.112477e-03
5.503683e-03 -4.386175e+00 -1.840492e+01 -4.496941e-02 5.669873e-01 8.224982e-01
-2.950380e+00 -3.994963e+00 -1.767491e+01 4.263353e-01 9.045652e-01 4.536278e-04
-1.967638e+00 -4.457993e+00 -1.797573e+01 4.263353e-01 9.045652e-01 4.536278e-04
-1.278026e+00 -4.177725e+00 -1.849517e+01 1.943473e-01 5.071715e-01 8.396465e-01
-4.395841e+00 -2.311833e+00 -1.778322e+01 7.786725e-01 6.274279e-01 -1.870089e-03
-3.715457e+00 -3.157133e+00 -1.808707e+01 7.786725e-01 6.274279e-01 -1.870089e-03
-3.015384e+00 -3.245466e+00 -1.856082e+01 2.748770e-01 3.975396e-01 8.754455e-01
-4.963943e+00 -1.562168e-01 -1.789068e+01 9.743804e-01 2.249060e-01 0.000000e+00
-4.719666e+00 -1.214517e+00 -1.819205e+01 9.743804e-01 2.249060e-01 0.000000e+00
-3.987566e+00 -1.861890e+00 -1.867791e+01 4.567955e-01 2.025844e-01 8.661970e-01
-4.460106e+00 2.099598e+00 -1.795367e+01 9.684933e-01 -2.490400e-01 -1.054605e-08
-4.774382e+00 8.774089e-01 -1.818102e+01 9.684933e-01 -2.490400e-01 -1.054605e-08
-4.684523e+00 1.797533e-01 -1.862609e+01 5.403681e-01 -9.171627e-02 8.364152e-01
-4.333519e+00 -6.561864e-01 -1.742829e+01 5.566893e-01 8.735979e-02 -8.261146e-01
-4.265795e+00 1.302163e+00 -1.761540e+01 5.332014e-01 -1.783118e-01 -8.269832e-01
-3.420773e+00 -2.752705e+00 -1.731097e+01 4.686739e-01 3.266574e-01 -8.207555e-01
-2.174576e+00 -3.909724e+00 -1.729331e+01 2.656519e-01 4.654409e-01 -8.442711e-01
-2.688696e-01 -4.378524e+00 -1.710646e+01 3.644651e-02 5.625002e-01 -8.259933e-01
1.952847e+00 -3.926936e+00 -1.698446e+01 -2.133452e-01 5.281422e-01 -8.219183e-01
3.008214e+00 -3.170919e+00 -1.689538e+01 -3.982055e-01 3.669998e-01 -8.406804e-01
4.574391e+00 -1.860957e+00 -1.569550e+01 -9.748303e-01 2.229479e-01 1.093977e-08
4.853971e+00 -6.385024e-01 -1.591884e+01 -9.748303e-01 2.229479e-01 1.093977e-08
4.577944e+00 1.852981e+00 -1.605475e+01 -9.750277e-01 -2.220831e-01 -1.566571e-08
4.856371e+00 6.305829e-01 -1.583156e+01 -9.750277e-01 -2.220831e-01 -1.566571e-08
4.316519e+00 -1.124029e+00 -1.533566e+01 -5.385745e-01 1.639968e-01 -8.264638e-01
4.275393e+00 9.917786e-01 -1.516734e+01 -5.649583e-01 -8.967104e-02 -8.202324e-01
4.263155e+00 -1.019933e+00 -1.658773e+01 -5.620103e-01 8.685974e-02 8.225567e-01
4.209712e+00 1.238413e+00 -1.646369e+01 -5.404869e-01 -1.638591e-01 8.252417e-01
4.729803e+00 -6.466584e-03 -1.634708e+01 -4.980359e-01 1.544278e-02 8.670188e-01
4.035665e+00 -2.760698e+00 -1.596726e+01 -7.841014e-01 6.206010e-01 6.267956e-03
3.373399e+00 -3.593962e+00 -1.631161e+01 -7.841014e-01 6.206010e-01 6.267956e-03
3.762387e+00 -2.226589e+00 -1.667485e+01 -4.503406e-01 3.051218e-01 8.391030e-01
2.436782e+00 -4.240610e+00 -1.607614e+01 -4.385271e-01 8.986451e-01 1.143962e-02
1.484692e+00 -4.700815e+00 -1.642196e+01 -4.385271e-01 8.986451e-01 1.143962e-02
2.100104e+00 -3.859016e+00 -1.678354e+01 -2.835982e-01 4.914674e-01 8.234268e-01
3.600245e-01 -4.877866e+00 -1.618340e+01 -6.507947e-03 9.999012e-01 1.245754e-02
-6.960707e-01 -4.880428e+00 -1.652951e+01 -6.507947e-03 9.999012e-01 1.245754e-02
9.408572e-01 -4.259778e+00 -1.688190e+01 -4.441998e-02 5.079368e-01 8.602482e-01
-1.789011e+00 -4.551833e+00 -1.628979e+01 4.277180e-01 9.037980e-01 1.436104e-02
-1.387706e+00 -4.148115e+00 -1.699671e+01 1.987302e-01 5.130410e-01 8.350419e-01
-2.648527e+00 -4.076120e+00 -1.674088e+01 1.987302e-01 5.130410e-01 8.350419e-01
-3.214928e+00 -3.787321e+00 -1.619101e+01 7.785088e-01 6.275452e-01 1.053164e-02
-3.981536e+00 -2.829409e+00 -1.660137e+01 7.785088e-01 6.275452e-01 1.053164e-02
-3.253838e+00 -3.116982e+00 -1.702748e+01 4.180114e-01 3.874040e-01 8.216962e-01
-4.964030e+00 -1.562133e-01 -1.639087e+01 9.744998e-01 2.243883e-01 0.000000e+00
-4.720362e+00 -1.214444e+00 -1.669303e+01 9.744998e-01 2.243883e-01 0.000000e+00
-3.967928e+00 -1.812358e+00 -1.720562e+01 4.920902e-01 1.556354e-01 8.565191e-01
-4.572775e+00 1.864573e+00 -1.644561e+01 9.747406e-01 -2.233400e-01 3.249583e-08
-4.823716e+00 7.640216e-01 -1.691143e+01 9.743020e-01 -2.251125e-01 7.745678e-03
-4.315859e+00 -4.032148e-01 -1.729049e+01 4.805481e-01 5.911601e-02 8.749737e-01
-4.344966e+00 -5.434785e-01 -1.592993e+01 5.494952e-01 8.400719e-02 -8.312628e-01
-4.454077e+00 1.049363e+00 -1.618174e+01 4.974997e-01 -1.561444e-01 -8.532953e-01
-3.478681e+00 -2.694866e+00 -1.582134e+01 4.702401e-01 3.238284e-01 -8.209808e-01
-4.246306e+00 -1.674428e+00 -1.598666e+01 5.226493e-01 9.246538e-02 -8.475187e-01
-2.560372e+00 -3.536470e+00 -1.572063e+01 2.652397e-01 4.551266e-01 -8.500044e-01
-3.816619e-01 -4.365101e+00 -1.560834e+01 4.093515e-02 5.584716e-01 -8.285130e-01
1.879840e+00 -3.972039e+00 -1.549424e+01 -2.101233e-01 5.304666e-01 -8.212512e-01
1.000875e+00 -4.598046e+00 -1.571344e+01 -1.104935e-01 4.794076e-01 -8.706088e-01
2.921486e+00 -3.245926e+00 -1.539793e+01 -3.901229e-01 3.643836e-01 -8.455938e-01
3.745227e+00 -2.100532e+00 -1.528489e+01 -4.162768e-01 2.443570e-01 -8.757871e-01
-4.344637e+00 -2.380332e+00 -1.522007e+01 8.215164e-01 5.594278e-01 -1.102328e-01
-3.707014e+00 -3.227945e+00 -1.476976e+01 8.215164e-01 5.594278e-01 -1.102328e-01
-4.056291e+00 -1.596002e+00 -1.434895e+01 4.372835e-01 2.506939e-01 -8.636757e-01
-4.835834e+00 -1.176823e+00 -1.482452e+01 9.572011e-01 2.795050e-01 7.511920e-02
-2.895889e+00 -4.013350e+00 -1.505118e+01 4.886602e-01 8.667468e-01 -9.980520e-02
-1.898218e+00 -4.532145e+00 -1.467186e+01 4.886602e-01 8.667468e-01 -9.980520e-02
-2.660047e+00 -3.463632e+00 -1.423116e+01 2.992851e-01 4.538608e-01 -8.393084e-01
-8.317813e-01 -4.878901e+00 -1.500963e+01 5.341145e-02 9.951124e-01 -8.305751e-02
3.009320e-01 -4.903330e+00 -1.457391e+01 5.341145e-02 9.951124e-01 -8.305751e-02
-5.050841e-01 -4.354796e+00 -1.411846e+01 6.768204e-02 5.634297e-01 -8.233869e-01
1.373176e+00 -4.751791e+00 -1.490515e+01 -3.954280e-01 9.157805e-01 -7.058825e-02
2.430196e+00 -4.262579e+00 -1.447965e+01 -3.954280e-01 9.157805e-01 -7.058825e-02
1.539927e+00 -4.211379e+00 -1.407363e+01 -1.933344e-01 5.421830e-01 -8.177159e-01
3.291910e+00 -3.685589e+00 -1.474104e+01 -7.642606e-01 6.431628e-01 -4.740449e-02
4.066108e+00 -2.739230e+00 -1.438298e+01 -7.642606e-01 6.431628e-01 -4.740449e-02
2.831226e+00 -3.320876e+00 -1.390279e+01 -3.830822e-01 3.739672e-01 -8.446279e-01
4.962891e+00 -1.562426e-01 -1.461161e+01 -9.729336e-01 2.310847e-01 -8.057508e-16
4.711363e+00 -1.215247e+00 -1.431926e+01 -9.729336e-01 2.310847e-01 -8.057508e-16
4.341743e+00 -1.966253e+00 -1.403061e+01 -5.385979e-01 1.688038e-01 -8.254802e-01
4.567627e+00 1.876038e+00 -1.455402e+01 -9.744548e-01 -2.245838e-01 -1.269150e-08
4.822109e+00 7.701514e-01 -1.415023e+01 -9.742290e-01 -2.255233e-01 -4.126600e-03
4.271982e+00 -4.053590e-01 -1.368697e+01 -5.116655e-01 1.435584e-01 -8.471065e-01
4.258983e+00 6.932883e-01 -1.363792e+01 -4.888996e-01 6.012821e-03 -8.723193e-01
4.438577e+00 -7.207624e-01 -1.496281e+01 -5.087364e-01 7.398289e-02 8.577376e-01
4.246100e+00 1.134607e+00 -1.496311e+01 -5.457230e-01 -1.663611e-01 8.212858e-01
3.705355e+00 -2.325976e+00 -1.517749e+01 -4.551206e-01 3.128338e-01 8.336666e-01
2.004222e+00 -3.916587e+00 -1.528452e+01 -2.810666e-01 4.954339e-01 8.219165e-01
8.277457e-01 -4.284776e+00 -1.538579e+01 -4.017192e-02 5.180456e-01 8.544090e-01
-1.496976e+00 -4.114639e+00 -1.549899e+01 2.048359e-01 5.162271e-01 8.315960e-01
-3.403936e+00 -2.789810e+00 -1.560692e+01 4.209579e-01 3.856533e-01 8.210153e-01
-4.961705e+00 -1.682740e-01 -1.524939e+01 9.750684e-01 2.219044e-01 0.000000e+00
-4.017453e+00 -1.708891e+00 -1.570821e+01 5.022844e-01 1.563036e-01 8.504586e-01
-4.581803e+00 1.844277e+00 -1.494497e+01 9.752421e-01 -2.211399e-01 -3.286842e-08
-4.339343e+00 6.000189e-01 -1.582103e+01 5.533310e-01 -8.585390e-02 8.285251e-01
-4.468696e+00 -4.433377e-01 -1.449444e+01 5.124765e-01 6.818091e-03 -8.586741e-01
-4.514277e+00 9.688681e-01 -1.470710e+01 4.823656e-01 -1.519663e-01 -8.626874e-01
-4.938827e+00 -6.523351e-01 -1.381612e+01 9.956319e-01 9.336523e-02 5.977045e-09
-4.582758e+00 1.842114e+00 -1.344490e+01 9.752952e-01 -2.209058e-01 1.543862e-08
-4.859614e+00 6.198015e-01 -1.366790e+01 9.752952e-01 -2.209058e-01 1.543862e-08
-4.331355e+00 7.100403e-01 -1.432013e+01 5.578939e-01 -8.575384e-02 8.254699e-01
-4.640348e+00 -1.836966e+00 -1.374428e+01 9.709143e-01 2.150763e-01 -1.052025e-01
-4.358301e+00 -3.171428e-01 -1.293292e+01 5.318928e-01 7.904673e-02 -8.431143e-01
-4.283750e+00 9.646140e-01 -1.302544e+01 5.452893e-01 -1.640870e-01 -8.220311e-01
-3.351135e+00 -3.701638e+00 -1.363797e+01 7.851227e-01 6.135071e-01 -8.480107e-02
-4.090966e+00 -2.706463e+00 -1.328786e+01 7.851227e-01 6.135071e-01 -8.480107e-02
-4.191604e+00 -1.460342e+00 -1.292518e+01 5.586630e-01 7.193150e-02 -8.262696e-01
-1.362087e+00 -4.805253e+00 -1.353235e+01 4.430746e-01 8.933948e-01 -7.436877e-02
-2.465735e+00 -4.230111e+00 -1.319847e+01 4.430746e-01 8.933948e-01 -7.436877e-02
-2.739999e+00 -3.392611e+00 -1.272679e+01 2.592781e-01 4.333187e-01 -8.631396e-01
9.028205e-01 -4.914362e+00 -1.342465e+01 1.148462e-02 9.984129e-01 -5.513329e-02
-3.429978e-01 -4.881953e+00 -1.309726e+01 1.148462e-02 9.984129e-01 -5.513329e-02
-1.762420e+00 -3.939191e+00 -1.265851e+01 3.636840e-01 5.168839e-01 -7.749612e-01
3.003211e+00 -3.994761e+00 -1.331793e+01 -4.249131e-01 9.041356e-01 -4.458195e-02
1.865961e+00 -4.513832e+00 -1.300563e+01 -4.249131e-01 9.041356e-01 -4.458195e-02
4.157829e-01 -4.280220e+00 -1.252200e+01 4.710448e-02 5.467312e-01 -8.359820e-01
4.470026e+00 -2.239831e+00 -1.320897e+01 -7.784236e-01 6.273150e-01 -2.307924e-02
3.679312e+00 -3.209710e+00 -1.290172e+01 -7.784236e-01 6.273150e-01 -2.307924e-02
2.743806e+00 -3.391003e+00 -1.240348e+01 -3.696158e-01 3.503591e-01 -8.606001e-01
4.964014e+00 -1.562140e-01 -1.310916e+01 -9.744781e-01 2.244829e-01 3.502079e-18
4.720235e+00 -1.214458e+00 -1.280715e+01 -9.744781e-01 2.244829e-01 3.502079e-18
4.107337e+00 -1.499773e+00 -1.228795e+01 -5.253855e-01 1.623052e-01 -8.352408e-01
3.479424e+00 -2.556031e+00 -1.233497e+01 -4.207977e-01 4.564459e-01 -7.839556e-01
4.562903e+00 1.886492e+00 -1.305368e+01 -9.741926e-01 -2.257188e-01 -7.640310e-09
4.803811e+00 8.576856e-01 -1.253059e+01 -9.746930e-01 -2.232943e-01 1.063549e-02
4.413025e+00 -4.331766e-01 -1.227422e+01 -5.229453e-01 1.601387e-01 -8.371881e-01
4.401564e+00 -6.269469e-01 -1.349930e+01 -5.218308e-01 8.189204e-02 8.491089e-01
4.272267e+00 1.041934e+00 -1.346563e+01 -5.479665e-01 -1.674801e-01 8.195628e-01
3.639103e+00 -2.424761e+00 -1.368413e+01 -4.519646e-01 3.264200e-01 8.301674e-01
1.888083e+00 -3.965589e+00 -1.379540e+01 -2.650214e-01 5.093434e-01 8.187386e-01
2.999359e+00 -3.338900e+00 -1.366687e+01 -4.338147e-01 3.228881e-01 8.411587e-01
7.069538e-01 -4.302539e+00 -1.389572e+01 -1.598456e-02 5.121723e-01 8.587340e-01
-1.612542e+00 -4.061251e+00 -1.401273e+01 2.317838e-01 4.984467e-01 8.353605e-01
-4.256133e-01 -4.383176e+00 -1.389709e+01 -6.092748e-02 6.218517e-01 7.807613e-01
-3.483169e+00 -2.669079e+00 -1.412432e+01 4.460526e-01 3.552949e-01 8.214636e-01
-2.680500e+00 -3.762658e+00 -1.389479e+01 2.318778e-01 5.029562e-01 8.326269e-01
-4.182142e+00 -1.505034e+00 -1.417357e+01 4.673642e-01 1.777406e-01 8.660133e-01
4.578277e+00 -1.852232e+00 -1.119522e+01 -9.750462e-01 2.220020e-01 -3.644033e-08
4.856596e+00 -6.298397e-01 -1.141840e+01 -9.750462e-01 2.220020e-01 -3.644033e-08
4.574968e+00 1.859666e+00 -1.155454e+01 -9.748625e-01 -2.228077e-01 -3.160631e-08
4.854362e+00 6.372200e-01 -1.133122e+01 -9.748625e-01 -2.228077e-01 -3.160631e-08
4.417398e+00 -1.078740e+00 -1.090604e+01 -5.135810e-01 1.585741e-01 -8.432608e-01
4.331353e+00 7.100411e-01 -1.067987e+01 -5.578948e-01 -8.575524e-02 -8.254693e-01
4.356226e+00 -3.180409e-01 -1.206819e+01 -5.324073e-01 8.100644e-02 8.426033e-01
3.241228e+00 -3.764471e+00 -1.135652e+01 -7.797579e-01 6.257970e-01 1.885627e-02
3.916882e+00 -2.913152e+00 -1.166973e+01 -7.797579e-01 6.257970e-01 1.885627e-02
4.135285e+00 -1.657590e+00 -1.209335e+01 -4.483708e-01 1.793162e-01 8.756765e-01
1.117647e+00 -4.873247e+00 -1.147178e+01 -4.281798e-01 9.033921e-01 2.333841e-02
2.246536e+00 -4.330386e+00 -1.177380e+01 -4.281798e-01 9.033921e-01 2.333841e-02
2.701835e+00 -3.479326e+00 -1.224743e+01 -2.978978e-01 3.980330e-01 8.676559e-01
-9.315418e-01 -4.879839e+00 -1.157222e+01 7.838892e-03 9.997521e-01 2.083660e-02
1.547663e-01 -4.881750e+00 -1.188923e+01 7.838892e-03 9.997521e-01 2.083660e-02
6.026270e-01 -4.328813e+00 -1.239108e+01 -3.580642e-02 5.375529e-01 8.424695e-01
-2.980004e+00 -3.973995e+00 -1.167884e+01 4.404535e-01 8.976715e-01 1.365875e-02
-2.002495e+00 -4.448915e+00 -1.198817e+01 4.404535e-01 8.976715e-01 1.365875e-02
-7.453458e-01 -4.386559e+00 -1.242101e+01 8.167531e-02 4.764342e-01 8.754083e-01
-4.402040e+00 -2.302098e+00 -1.178617e+01 7.851749e-01 6.192247e-01 7.818086e-03
-3.728510e+00 -3.152176e+00 -1.209939e+01 7.851749e-01 6.192247e-01 7.818086e-03
-2.831096e+00 -3.369477e+00 -1.257396e+01 3.287452e-01 3.762271e-01 8.662446e-01
-4.964566e+00 -1.561877e-01 -1.189209e+01 9.752179e-01 2.212463e-01 0.000000e+00
-4.724592e+00 -1.213955e+00 -1.219903e+01 9.752179e-01 2.212463e-01 0.000000e+00
-4.108401e+00 -1.500017e+00 -1.271206e+01 5.227045e-01 1.599251e-01 8.373792e-01
-4.578259e+00 1.852274e+00 -1.194522e+01 9.750450e-01 -2.220066e-01 -3.721625e-09
-4.829314e+00 7.524078e-01 -1.241399e+01 9.752455e-01 -2.210897e-01 -3.953150e-03
-4.433576e+00 -2.050969e-01 -1.275133e+01 4.846969e-01 1.966463e-02 8.744611e-01
-4.414603e+00 -6.236454e-01 -1.150594e+01 5.211436e-01 7.749319e-02 -8.499435e-01
-4.277536e+00 1.037745e+00 -1.153616e+01 5.459165e-01 -1.648625e-01 -8.214593e-01
-3.650809e+00 -2.423580e+00 -1.132243e+01 4.602824e-01 3.162888e-01 -8.295188e-01
-1.924752e+00 -3.950094e+00 -1.120829e+01 2.825486e-01 4.984998e-01 -8.195513e-01
-3.191648e-01 -4.456122e+00 -1.118575e+01 3.867692e-02 5.286886e-01 -8.479342e-01
1.604569e+00 -4.077769e+00 -1.099899e+01 -2.103771e-01 5.221851e-01 -8.264769e-01
3.444528e+00 -2.726290e+00 -1.088335e+01 -4.203587e-01 3.829365e-01 -8.225923e-01
4.582574e+00 -1.842533e+00 -9.694917e+00 -9.752849e-01 2.209511e-01 -3.918883e-08
4.859490e+00 -6.202169e-01 -9.917919e+00 -9.752849e-01 2.209511e-01 -3.918883e-08
4.581798e+00 1.844289e+00 -1.005503e+01 -9.752418e-01 -2.211415e-01 -3.179550e-08
4.858967e+00 6.219589e-01 -9.831993e+00 -9.752418e-01 -2.211415e-01 -3.179550e-08
4.334755e+00 6.021075e-01 -9.176568e+00 -5.552068e-01 -8.958974e-02 -8.268731e-01
4.260727e+00 -6.628993e-01 -9.215403e+00 -5.522856e-01 1.972913e-01 -8.099734e-01
4.352331e+00 -4.308376e-01 -1.056900e+01 -5.415646e-01 8.199167e-02 8.366511e-01
4.228296e+00 1.121890e+00 -1.043639e+01 -5.812370e-01 -2.297530e-01 7.806259e-01
3.245869e+00 -3.760153e+00 -9.855323e+00 -7.843734e-01 6.202884e-01 8.427319e-04
3.918079e+00 -2.909702e+00 -1.016516e+01 -7.843734e-01 6.202884e-01 8.427319e-04
4.083288e+00 -1.737915e+00 -1.060876e+01 -4.453293e-01 1.926462e-01 8.743964e-01
1.291655e+00 -4.795901e+00 -9.961395e+00 -4.386750e-01 8.986079e-01 8.264501e-03
2.267114e+00 -4.316901e+00 -1.026670e+01 -4.386750e-01 8.986079e-01 8.264501e-03
2.650332e+00 -3.465055e+00 -1.077666e+01 -2.632299e-01 4.457638e-01 8.555726e-01
-9.021465e-01 -4.884783e+00 -1.006921e+01 -4.515274e-03 9.999453e-01 9.426351e-03
1.833430e-01 -4.876951e+00 -1.038005e+01 -4.515274e-03 9.999453e-01 9.426351e-03
1.355460e+00 -4.117472e+00 -1.086182e+01 -1.645162e-01 4.551194e-01 8.751004e-01
-2.947547e+00 -3.997690e+00 -1.017610e+01 4.313433e-01 9.020768e-01 1.414835e-02
-1.964421e+00 -4.462987e+00 -1.048225e+01 4.313433e-01 9.020768e-01 1.414835e-02
-8.309901e-01 -4.349606e+00 -1.093807e+01 9.596914e-02 4.780259e-01 8.730870e-01
-4.391951e+00 -2.320646e+00 -1.028444e+01 7.813239e-01 6.240835e-01 7.280155e-03
-3.712914e+00 -3.167147e+00 -1.059483e+01 7.813239e-01 6.240835e-01 7.280155e-03
-2.834055e+00 -3.319625e+00 -1.109954e+01 3.793419e-01 3.554053e-01 8.542755e-01
-4.964187e+00 -1.562066e-01 -1.039122e+01 9.747105e-01 2.234716e-01 0.000000e+00
-4.721596e+00 -1.214309e+00 -1.069476e+01 9.747105e-01 2.234716e-01 0.000000e+00
-3.738816e+00 -2.195176e+00 -1.118606e+01 4.098935e-01 2.557754e-01 8.755377e-01
-4.567728e+00 1.875814e+00 -1.044597e+01 9.744604e-01 -2.245595e-01 1.167601e-08
-4.823393e+00 7.702089e-01 -1.084981e+01 9.749039e-01 -2.224326e-01 -9.276501e-03
-4.422707e+00 -1.027825e-01 -1.126483e+01 4.888996e-01 6.012821e-03 8.723193e-01
-4.433011e+00 -7.220468e-01 -1.003509e+01 5.088040e-01 7.538918e-02 -8.575751e-01
-4.246109e+00 1.134609e+00 -1.003689e+01 5.457079e-01 -1.663438e-01 -8.212993e-01
-3.704285e+00 -2.326465e+00 -9.821658e+00 4.522242e-01 3.138447e-01 -8.348621e-01
-1.999402e+00 -3.915061e+00 -9.713009e+00 2.781969e-01 4.981710e-01 -8.212383e-01
-2.272072e-01 -4.497505e+00 -9.715326e+00 3.655868e-02 5.139656e-01 -8.570314e-01
1.497998e+00 -4.112527e+00 -9.499557e+00 -2.075063e-01 5.136684e-01 -8.325178e-01
3.410755e+00 -2.786678e+00 -9.394434e+00 -4.211506e-01 3.825950e-01 -8.223462e-01
-4.563709e+00 -1.884712e+00 -9.303741e+00 9.742373e-01 2.255254e-01 -3.978985e-08
-4.846727e+00 -6.621151e-01 -9.079966e+00 9.742373e-01 2.255254e-01 -3.978985e-08
-4.645687e+00 1.693081e+00 -8.940495e+00 9.787967e-01 -2.048342e-01 1.572840e-08
-4.901040e+00 4.728806e-01 -9.160535e+00 9.787967e-01 -2.048342e-01 1.572840e-08
-4.315671e+00 -1.123834e+00 -9.664339e+00 5.404351e-01 1.658820e-01 8.248714e-01
-4.275410e+00 9.917261e-01 -9.832653e+00 5.649428e-01 -8.965224e-02 8.202451e-01
-4.261410e+00 -1.025625e+00 -8.411980e+00 5.638166e-01 8.896855e-02 -8.210941e-01
-4.267026e+00 2.725442e-01 -8.420771e+00 4.983943e-01 -1.205309e-01 -8.585309e-01
-4.019570e+00 -2.781739e+00 -9.033311e+00 7.796031e-01 6.262473e-01 -5.769051e-03
-3.350973e+00 -3.610909e+00 -8.690969e+00 7.796031e-01 6.262473e-01 -5.769051e-03
-3.759935e+00 -2.227049e+00 -8.323598e+00 4.469196e-01 3.073084e-01 -8.401335e-01
-2.409155e+00 -4.253494e+00 -8.925597e+00 4.295882e-01 9.030166e-01 -3.889947e-03
-1.444567e+00 -4.710896e+00 -8.582847e+00 4.295882e-01 9.030166e-01 -3.889947e-03
-2.095331e+00 -3.857908e+00 -8.213763e+00 2.785672e-01 4.934569e-01 -8.239542e-01
-3.138491e-01 -4.880197e+00 -8.815470e+00 -4.236211e-03 9.999438e-01 -9.721396e-03
7.459428e-01 -4.872353e+00 -8.470410e+00 -4.236211e-03 9.999438e-01 -9.721396e-03
-9.391677e-01 -4.259191e+00 -8.116690e+00 3.920143e-02 5.031067e-01 -8.633348e-01
1.824474e+00 -4.536337e+00 -8.709801e+00 -4.368713e-01 8.995062e-01 -5.691926e-03
2.781737e+00 -4.069236e+00 -8.365535e+00 -4.368713e-01 8.995062e-01 -5.691926e-03
1.389118e+00 -4.146483e+00 -8.001688e+00 -2.018513e-01 5.075776e-01 -8.376281e-01
1.786855e-01 -4.312663e+00 -8.048640e+00 9.482305e-02 6.223796e-01 -7.769506e-01
3.610202e+00 -3.297868e+00 -8.602554e+00 -7.832142e-01 6.217006e-01 -8.001593e-03
4.268388e+00 -2.464257e+00 -8.258161e+00 -7.832142e-01 6.217006e-01 -8.001593e-03
3.333972e+00 -2.863866e+00 -7.893382e+00 -4.196341e-01 3.833961e-01 -8.227481e-01
4.964547e+00 -1.561887e-01 -8.607956e+00 -9.751929e-01 2.213568e-01 3.453314e-18
4.724443e+00 -1.213974e+00 -8.301189e+00 -9.751929e-01 2.213568e-01 3.453314e-18
3.968925e+00 -1.812586e+00 -7.794376e+00 -4.892629e-01 1.534420e-01 -8.585321e-01
4.549836e+00 1.915077e+00 -8.552751e+00 -9.734672e-01 -2.288264e-01 1.291441e-08
4.812024e+00 8.092467e-01 -8.157049e+00 -9.744294e-01 -2.234069e-01 2.401169e-02
4.251091e+00 -7.468160e-01 -7.723947e+00 -5.708548e-01 2.184155e-01 -7.914666e-01
4.345745e+00 -5.431162e-01 -9.069656e+00 -5.492064e-01 8.337609e-02 8.315171e-01
4.077335e+00 1.341809e+00 -8.990591e+00 -5.612157e-01 -2.076084e-01 8.012089e-01
3.484376e+00 -2.687094e+00 -9.178716e+00 -4.704331e-01 3.206363e-01 8.221223e-01
4.368567e+00 -1.641907e+00 -8.942211e+00 -5.216798e-01 9.216529e-02 8.481485e-01
2.561457e+00 -3.536264e+00 -9.278479e+00 -2.695023e-01 4.563355e-01 8.480133e-01
3.842834e-01 -4.367421e+00 -9.389681e+00 -4.498270e-02 5.588075e-01 8.280765e-01
-1.868825e+00 -3.972578e+00 -9.507479e+00 2.072532e-01 5.330679e-01 8.202955e-01
-7.648871e-01 -4.450555e+00 -9.375954e+00 -1.993436e-02 5.192903e-01 8.543655e-01
-2.921374e+00 -3.247147e+00 -9.601213e+00 3.897154e-01 3.672958e-01 8.445210e-01
-3.847180e+00 -2.250261e+00 -9.624841e+00 4.163718e-01 2.443969e-01 8.757309e-01
4.572679e+00 -1.864788e+00 -6.695620e+00 -9.747353e-01 2.233632e-01 -3.332755e-08
4.852813e+00 -6.423080e-01 -6.919033e+00 -9.747353e-01 2.233632e-01 -3.332755e-08
4.576874e+00 1.855389e+00 -7.054678e+00 -9.749683e-01 -2.223440e-01 3.390223e-08
4.855649e+00 6.329734e-01 -6.831438e+00 -9.749683e-01 -2.223440e-01 3.390223e-08
4.282905e+00 -9.285700e-01 -6.268909e+00 -5.456502e-01 1.656191e-01 -8.214840e-01
4.353378e+00 3.750318e-01 -6.180727e+00 -5.375404e-01 -8.258933e-02 -8.391836e-01
4.336285e+00 -6.548513e-01 -7.570277e+00 -5.555433e-01 8.526746e-02 8.271039e-01
4.391455e+00 1.128047e+00 -7.347278e+00 -5.084535e-01 -1.577595e-01 8.465145e-01
4.033841e+00 -2.763246e+00 -6.967274e+00 -7.836726e-01 6.211330e-01 7.148801e-03
3.371474e+00 -3.594981e+00 -7.311430e+00 -7.836726e-01 6.211330e-01 7.148801e-03
3.426897e+00 -2.741042e+00 -7.689939e+00 -4.702491e-01 3.224941e-01 8.215007e-01
4.362913e+00 -2.118414e+00 -7.383796e+00 -4.425872e-01 2.222641e-01 8.687435e-01
2.432428e+00 -4.243096e+00 -7.076378e+00 -4.375825e-01 8.991084e-01 1.120518e-02
1.479612e+00 -4.702508e+00 -7.422205e+00 -4.375825e-01 8.991084e-01 1.120518e-02
2.469711e+00 -3.605033e+00 -7.781080e+00 -2.714180e-01 4.656775e-01 8.423043e-01
3.541791e-01 -4.878286e+00 -7.183640e+00 -5.335481e-03 9.998997e-01 1.311371e-02
-7.010577e-01 -4.879379e+00 -7.529671e+00 -5.335481e-03 9.998997e-01 1.311371e-02
2.723686e-01 -4.381000e+00 -7.890986e+00 -4.235892e-02 5.640697e-01 8.246400e-01
-1.794796e+00 -4.549653e+00 -7.290248e+00 4.287784e-01 9.033034e-01 1.385850e-02
-2.745190e+00 -4.093220e+00 -7.635793e+00 4.287784e-01 9.033034e-01 1.385850e-02
-1.937752e+00 -3.929155e+00 -8.017262e+00 2.081840e-01 5.299991e-01 8.220466e-01
-3.587821e+00 -3.321913e+00 -7.395432e+00 7.790669e-01 6.268461e-01 1.089987e-02
-4.248396e+00 -2.494948e+00 -7.739194e+00 7.790669e-01 6.268461e-01 1.089987e-02
-3.007606e+00 -3.171978e+00 -8.103627e+00 3.984614e-01 3.720535e-01 8.383344e-01
-4.964110e+00 -1.562100e-01 -7.391054e+00 9.746076e-01 2.239189e-01 0.000000e+00
-4.720994e+00 -1.214376e+00 -7.693915e+00 9.746076e-01 2.239189e-01 0.000000e+00
-4.053058e+00 -1.762098e+00 -8.162202e+00 4.240684e-01 2.334491e-01 8.750243e-01
-4.574813e+00 1.860013e+00 -7.445468e+00 9.748537e-01 -2.228454e-01 -4.423875e-08
-4.832010e+00 7.884049e-01 -7.935464e+00 9.761047e-01 -2.074488e-01 -6.468735e-02
-4.370851e+00 2.726466e-02 -8.306320e+00 5.021755e-01 -6.271826e-02 8.624884e-01
-4.291236e+00 -9.511430e-01 -6.923215e+00 5.634345e-01 8.750061e-02 -8.215140e-01
-4.294938e+00 1.174369e+00 -7.083819e+00 5.355356e-01 -1.633452e-01 -8.285650e-01
-3.814940e+00 -2.126043e+00 -6.826602e+00 4.416558e-01 2.989880e-01 -8.458997e-01
-2.191780e+00 -3.798430e+00 -6.715562e+00 2.804192e-01 4.877015e-01 -8.267481e-01
5.655941e-03 -4.388026e+00 -6.595683e+00 4.132741e-02 5.687258e-01 -8.214883e-01
1.278705e+00 -4.178298e+00 -6.504517e+00 -1.950633e-01 5.027860e-01 -8.421143e-01
3.255106e+00 -2.942737e+00 -6.393886e+00 -4.158465e-01 3.843130e-01 -8.242421e-01
4.572666e+00 -1.864817e+00 -3.695621e+00 -9.747346e-01 2.233664e-01 2.241352e-09
4.852805e+00 -6.423368e-01 -3.919034e+00 -9.747346e-01 2.233664e-01 2.241352e-09
4.568327e+00 1.874483e+00 -4.054070e+00 -9.744936e-01 -2.244151e-01 -2.823886e-08
4.849865e+00 6.519428e-01 -3.830479e+00 -9.744936e-01 -2.244151e-01 -2.823886e-08
4.264409e+00 -1.083338e+00 -3.287478e+00 -5.460530e-01 1.656993e-01 -8.212003e-01
4.385025e+00 1.346750e-01 -3.198543e+00 -5.127978e-01 -5.479268e-02 -8.567591e-01
4.684584e+00 1.361109e+00 -3.456274e+00 -5.127978e-01 -5.479268e-02 -8.567591e-01
4.308968e+00 -8.761712e-01 -4.571406e+00 -5.647274e-01 9.015664e-02 8.203382e-01
4.371636e+00 1.104105e+00 -4.375403e+00 -5.295492e-01 -1.630867e-01 8.324544e-01
3.221395e+00 -3.781143e+00 -3.857117e+00 -7.781368e-01 6.279251e-01 1.459829e-02
3.900248e+00 -2.932673e+00 -4.167788e+00 -7.781368e-01 6.279251e-01 1.459829e-02
3.865150e+00 -2.024716e+00 -4.672222e+00 -4.272732e-01 2.923220e-01 8.555614e-01
1.232221e+00 -4.811632e+00 -3.964655e+00 -4.263471e-01 9.044963e-01 1.069673e-02
2.213973e+00 -4.345244e+00 -4.271140e+00 -4.263471e-01 9.044963e-01 1.069673e-02
2.967188e+00 -3.160504e+00 -4.757788e+00 -3.408830e-01 3.431097e-01 8.752568e-01
-9.662954e-01 -4.872547e+00 -4.072443e+00 8.774603e-03 9.999222e-01 8.855668e-03
1.189795e-01 -4.879314e+00 -4.383687e+00 8.774603e-03 9.999222e-01 8.855668e-03
1.078933e+00 -4.296181e+00 -4.833536e+00 -1.144679e-01 4.735491e-01 8.732974e-01
-3.000465e+00 -3.958142e+00 -4.179091e+00 4.406708e-01 8.976676e-01 1.456026e-03
-2.026018e+00 -4.436009e+00 -4.484620e+00 4.406708e-01 8.976676e-01 1.456026e-03
-1.169639e+00 -4.205111e+00 -4.995064e+00 1.931006e-01 4.863811e-01 8.521418e-01
-4.407959e+00 -2.290051e+00 -4.285996e+00 7.850807e-01 6.193811e-01 3.918097e-03
-3.735212e+00 -3.140812e+00 -4.596014e+00 7.850807e-01 6.193811e-01 3.918097e-03
-2.462632e+00 -3.568603e+00 -5.082027e+00 2.637399e-01 4.046099e-01 8.756324e-01
-4.964614e+00 -1.561850e-01 -4.392198e+00 9.752823e-01 2.209628e-01 0.000000e+00
-4.724974e+00 -1.213907e+00 -4.699573e+00 9.752823e-01 2.209628e-01 0.000000e+00
-3.959492e+00 -1.961022e+00 -5.163464e+00 4.426746e-01 2.121824e-01 8.712162e-01
-4.581642e+00 1.844642e+00 -4.444983e+00 9.752331e-01 -2.211794e-01 2.663336e-08
-4.831135e+00 7.448334e-01 -4.915606e+00 9.752531e-01 -2.210911e-01 -3.797556e-04
-4.275161e+00 -6.279705e-01 -5.283944e+00 4.847424e-01 8.551073e-02 8.704669e-01
-4.324914e+00 -7.654440e-01 -3.929605e+00 5.602903e-01 8.693242e-02 -8.237217e-01
-4.443312e+00 1.029737e+00 -4.159714e+00 5.179498e-01 -1.589631e-01 -8.405109e-01
-3.716387e+00 -2.524809e+00 -3.930947e+00 4.224332e-01 2.813180e-01 -8.616325e-01
-2.376773e+00 -3.670645e+00 -3.716974e+00 2.767930e-01 4.762692e-01 -8.345976e-01
-1.632383e-01 -4.394591e+00 -3.609621e+00 4.163402e-02 5.669070e-01 -8.227289e-01
-1.408894e+00 -4.203912e+00 -3.702609e+00 2.719053e-01 4.728111e-01 -8.381629e-01
1.690037e+00 -4.165408e+00 -3.608328e+00 -1.855686e-01 4.822043e-01 -8.561795e-01
3.092712e+00 -3.096673e+00 -3.394789e+00 -4.046939e-01 3.741555e-01 -8.344042e-01
3.947361e+00 -2.297554e+00 -3.454813e+00 -3.992086e-01 3.604557e-01 -8.430328e-01
4.563840e+00 -1.884424e+00 -5.196249e+00 -9.742446e-01 2.254941e-01 -2.505847e-08
4.846817e+00 -6.618289e-01 -5.420020e+00 -9.742446e-01 2.254941e-01 -2.505847e-08
4.566356e+00 1.878859e+00 -5.553930e+00 -9.743841e-01 -2.248899e-01 -2.337454e-09
4.848526e+00 6.562936e-01 -5.330261e+00 -9.743841e-01 -2.248899e-01 -2.337454e-09
4.275232e+00 -1.005878e+00 -4.778884e+00 -5.479002e-01 1.673323e-01 -8.196372e-01
4.358301e+00 2.610059e-01 -4.682896e+00 -5.269833e-01 -7.954436e-02 -8.461449e-01
4.323573e+00 -7.661361e-01 -6.071083e+00 -5.608766e-01 8.785834e-02 8.232243e-01
4.090988e+00 1.265060e+00 -6.013827e+00 -5.293888e-01 -1.688804e-01 8.314005e-01
4.021384e+00 -2.779968e+00 -5.467162e+00 -7.803774e-01 6.252620e-01 7.633837e-03
3.354846e+00 -3.607675e+00 -5.810044e+00 -7.803774e-01 6.252620e-01 7.633837e-03
3.915277e+00 -1.920950e+00 -6.168931e+00 -4.197627e-01 2.833598e-01 8.622682e-01
2.411955e+00 -4.252686e+00 -5.575136e+00 -4.310078e-01 9.023303e-01 5.670242e-03
1.449930e+00 -4.710048e+00 -5.918735e+00 -4.310078e-01 9.023303e-01 5.670242e-03
2.375562e+00 -3.671169e+00 -6.284101e+00 -2.712238e-01 4.746200e-01 8.373610e-01
3.173133e-01 -4.880620e+00 -5.685158e+00 2.494863e-03 9.999131e-01 1.294564e-02
-7.381610e-01 -4.873511e+00 -6.030886e+00 2.494863e-03 9.999131e-01 1.294564e-02
1.601540e-01 -4.392021e+00 -6.392476e+00 -3.784630e-02 5.671335e-01 8.227558e-01
-1.822114e+00 -4.537942e+00 -5.790823e+00 4.355063e-01 9.001495e-01 8.066793e-03
-2.776889e+00 -4.072916e+00 -6.135779e+00 4.355063e-01 9.001495e-01 8.066793e-03
-1.057560e+00 -4.232834e+00 -6.491539e+00 1.854675e-01 4.778128e-01 8.586598e-01
-3.608783e+00 -3.299942e+00 -5.897707e+00 7.824970e-01 6.225628e-01 1.067965e-02
-4.264984e+00 -2.469252e+00 -6.242355e+00 7.824970e-01 6.225628e-01 1.067965e-02
-3.092340e+00 -3.095256e+00 -6.605909e+00 4.058759e-01 3.738713e-01 8.339574e-01
-4.964499e+00 -1.561913e-01 -5.891934e+00 9.751295e-01 2.216358e-01 0.000000e+00
-4.724067e+00 -1.214020e+00 -6.198274e+00 9.751295e-01 2.216358e-01 0.000000e+00
-4.002656e+00 -1.860149e+00 -6.662619e+00 4.325931e-01 2.226633e-01 8.736613e-01
-4.582075e+00 1.843660e+00 -5.944952e+00 9.752572e-01 -2.210733e-01 -3.067014e-09
-4.830417e+00 7.436435e-01 -6.415818e+00 9.749021e-01 -2.225434e-01 6.337254e-03
-4.361519e+00 1.462620e-01 -6.814204e+00 5.150608e-01 -7.556726e-02 8.538159e-01
-4.314265e+00 -8.732231e-01 -5.431262e+00 5.623466e-01 8.681338e-02 -8.223318e-01
-4.372735e+00 1.104356e+00 -5.624593e+00 5.268645e-01 -1.606330e-01 -8.346322e-01
-3.868165e+00 -2.023938e+00 -5.329860e+00 4.337961e-01 2.897997e-01 -8.531336e-01
-2.286095e+00 -3.735994e+00 -5.216987e+00 2.812266e-01 4.821223e-01 -8.297406e-01
-7.831159e-02 -4.397450e+00 -5.106165e+00 4.479436e-02 5.679443e-01 -8.218470e-01
1.167531e+00 -4.206737e+00 -5.007124e+00 -1.889231e-01 4.970928e-01 -8.468807e-01
3.174600e+00 -3.021377e+00 -4.894981e+00 -4.104443e-01 3.829235e-01 -8.275898e-01
-4.578008e+00 -1.852838e+00 -3.304759e+00 9.750313e-01 2.220676e-01 -2.427307e-08
-4.856414e+00 -6.304414e-01 -3.081565e+00 9.750313e-01 2.220676e-01 -2.427307e-08
-4.880704e+00 9.452683e-01 -2.929404e+00 9.921302e-01 -1.252097e-01 1.091177e-09
-4.284506e+00 -9.275578e-01 -3.730537e+00 5.450809e-01 1.647375e-01 8.220391e-01
-4.355891e+00 3.739353e-01 -3.817936e+00 5.368189e-01 -8.028658e-02 8.398688e-01
-4.550518e+00 1.624107e+00 -3.574028e+00 5.368189e-01 -8.028658e-02 8.398688e-01
-4.333940e+00 -6.559860e-01 -2.428503e+00 5.565134e-01 8.703711e-02 -8.262672e-01
-3.241299e+00 -3.764322e+00 -3.143749e+00 7.809304e-01 6.244701e-01 -1.359817e-02
-3.916228e+00 -2.913492e+00 -2.831537e+00 7.809304e-01 6.244701e-01 -1.359817e-02
-3.460802e+00 -2.565850e+00 -2.270921e+00 4.415064e-01 2.215308e-01 -8.694804e-01
-1.265153e+00 -4.803139e+00 -3.036718e+00 4.306509e-01 9.023488e-01 -1.750893e-02
-2.244746e+00 -4.329657e+00 -2.729260e+00 4.306509e-01 9.023488e-01 -1.750893e-02
-2.466433e+00 -3.603722e+00 -2.216941e+00 2.674721e-01 4.672626e-01 -8.426886e-01
9.331179e-01 -4.879281e+00 -2.928413e+00 -5.364256e-03 9.998583e-01 -1.595871e-02
-1.528741e-01 -4.880092e+00 -2.614189e+00 -5.364256e-03 9.998583e-01 -1.595871e-02
-1.451930e+00 -4.196094e+00 -2.211438e+00 2.952011e-01 4.885393e-01 -8.210881e-01
2.981458e+00 -3.972630e+00 -2.821625e+00 -4.390218e-01 8.984098e-01 -1.093109e-02
2.003557e+00 -4.446758e+00 -2.514477e+00 -4.390218e-01 8.984098e-01 -1.093109e-02
6.887140e-01 -4.221855e+00 -1.993014e+00 6.389136e-03 5.145901e-01 -8.574125e-01
1.784845e+00 -3.917601e+00 -1.944708e+00 -1.253897e-01 4.809067e-01 -8.677593e-01
4.402253e+00 -2.301488e+00 -2.714056e+00 -7.846193e-01 6.199498e-01 -5.887556e-03
3.728509e+00 -3.151225e+00 -2.401832e+00 -7.846193e-01 6.199498e-01 -5.887556e-03
3.008811e+00 -3.171676e+00 -1.895560e+00 -3.970533e-01 3.651876e-01 -8.420134e-01
4.964489e+00 -1.561918e-01 -2.608089e+00 -9.751160e-01 2.216956e-01 3.458595e-18
4.723986e+00 -1.214030e+00 -2.301842e+00 -9.751160e-01 2.216956e-01 3.458595e-18
3.775557e+00 -2.331023e+00 -1.885659e+00 -4.046124e-01 3.825309e-01 -8.306376e-01
4.715388e+00 1.509882e+00 -2.564142e+00 -9.826937e-01 -1.852372e-01 -2.252330e-08
4.362332e+00 3.118524e-02 -1.689070e+00 -5.021343e-01 -7.125650e-02 -8.618490e-01
4.290012e+00 -9.549960e-01 -3.076980e+00 -5.644646e-01 8.880883e-02 8.206660e-01
4.681117e+00 6.718048e-01 -2.774198e+00 -5.086172e-01 -1.374111e-01 8.499569e-01
3.686544e+00 -2.529189e+00 -3.098330e+00 -4.397213e-01 2.985463e-01 8.470626e-01
2.188384e+00 -3.796782e+00 -3.286198e+00 -2.793505e-01 4.904508e-01 8.254825e-01
-1.629608e-02 -4.391503e+00 -3.402954e+00 -3.753416e-02 5.686231e-01 8.217414e-01
-1.490229e+00 -4.156380e+00 -3.459148e+00 1.983239e-01 4.996881e-01 8.431959e-01
-3.256153e+00 -2.942422e+00 -3.606773e+00 4.153428e-01 3.793484e-01 8.267921e-01
4.582749e+00 -1.842136e+00 -6.949043e-01 -9.752946e-01 2.209081e-01 -3.906146e-08
4.859607e+00 -6.198230e-01 -9.178994e-01 -9.752946e-01 2.209081e-01 -3.906146e-08
4.582250e+00 1.843266e+00 -1.055060e+00 -9.752669e-01 -2.210306e-01 -5.975790e-09
4.859272e+00 6.209437e-01 -8.320444e-01 -9.752669e-01 -2.210306e-01 -5.975790e-09
4.317189e+00 -1.124182e+00 -3.356557e-01 -5.371099e-01 1.625159e-01 -8.277086e-01
4.277655e+00 9.845508e-01 -1.677109e-01 -5.628456e-01 -8.710164e-02 -8.219599e-01
4.262832e+00 -1.020992e+00 -1.587787e+00 -5.623454e-01 8.725041e-02 8.222865e-01
4.338447e+00 1.074216e+00 -1.412216e+00 -5.397651e-01 -1.630990e-01 8.258646e-01
3.244180e+00 -3.761504e+00 -8.552026e-01 -7.847606e-01 6.197969e-01 -1.575683e-03
3.916287e+00 -2.911296e+00 -1.164174e+00 -7.847606e-01 6.197969e-01 -1.575683e-03
3.763961e+00 -2.226735e+00 -1.674154e+00 -4.499518e-01 3.038016e-01 8.397903e-01
1.292190e+00 -4.795705e+00 -9.612036e-01 -4.397360e-01 8.981125e-01 5.104777e-03
2.267098e+00 -4.316636e+00 -1.265891e+00 -4.397360e-01 8.981125e-01 5.104777e-03
2.968576e+00 -3.303554e+00 -1.710835e+00 -3.222095e-01 3.618568e-01 8.747803e-01
-9.026122e-01 -4.884555e+00 -1.068825e+00 -6.367923e-03 9.999678e-01 4.873987e-03
1.823552e-01 -4.876139e+00 -1.378115e+00 -6.367923e-03 9.999678e-01 4.873987e-03
9.410304e-01 -4.260113e+00 -1.881755e+00 -4.454064e-02 5.075461e-01 8.604726e-01
-2.944426e+00 -3.999842e+00 -1.175598e+00 4.294265e-01 9.030284e-01 1.151125e-02
-1.960844e+00 -4.463688e+00 -1.480495e+00 4.294265e-01 9.030284e-01 1.151125e-02
-1.387977e+00 -4.146217e+00 -1.997563e+00 2.002084e-01 5.138527e-01 8.341893e-01
-4.390845e+00 -2.322432e+00 -1.283989e+00 7.803862e-01 6.252654e-01 6.360612e-03
-3.710653e+00 -3.168228e+00 -1.593012e+00 7.803862e-01 6.252654e-01 6.360612e-03
-2.602935e+00 -3.594189e+00 -2.037339e+00 2.869128e-01 3.912984e-01 8.743950e-01
-4.964110e+00 -1.562100e-01 -1.391052e+00 9.746069e-01 2.239222e-01 0.000000e+00
-4.720989e+00 -1.214376e+00 -1.693908e+00 9.746069e-01 2.239222e-01 0.000000e+00
-3.968081e+00 -1.812393e+00 -2.205620e+00 4.916528e-01 1.552959e-01 8.568318e-01
-4.565649e+00 1.880423e+00 -1.446121e+00 9.743450e-01 -2.250600e-01 1.373810e-08
-4.832030e+00 8.530525e-01 -1.817415e+00 9.312500e-01 -1.338788e-01 -3.388949e-01
-4.456878e+00 3.986674e-01 -2.261762e+00 5.205087e-01 -2.450657e-02 8.535047e-01
-4.341915e+00 -5.448664e-01 -9.283301e-01 5.506532e-01 8.653544e-02 -8.302366e-01
-4.256263e+00 7.049674e-01 -9.697246e-01 5.612157e-01 -2.076087e-01 -8.012089e-01
-3.472611e+00 -2.705256e+00 -8.216860e-01 4.674918e-01 3.274102e-01 -8.211297e-01
-2.259513e+00 -3.837018e+00 -7.887681e-01 2.592959e-01 4.547496e-01 -8.520377e-01
-3.789838e-01 -4.363669e+00 -6.062680e-01 3.501162e-02 5.552965e-01 -8.309150e-01
1.897052e+00 -3.968395e+00 -4.958965e-01 -2.151919e-01 5.284505e-01 -8.212385e-01
3.284997e+00 -3.027675e+00 -4.712998e-01 -3.889378e-01 3.589418e-01 -8.484622e-01
4.578328e+00 -1.852118e+00 8.047817e-01 -9.750491e-01 2.219895e-01 -4.011022e-08
4.856630e+00 -6.297268e-01 5.816016e-01 -9.750491e-01 2.219895e-01 -4.011022e-08
4.581448e+00 1.845079e+00 4.449966e-01 -9.752224e-01 -2.212268e-01 1.791672e-08
4.858732e+00 6.227421e-01 6.680464e-01 -9.752224e-01 -2.212268e-01 1.791672e-08
4.396229e+00 -1.054959e+00 1.122303e+00 -5.314616e-01 1.620540e-01 -8.314368e-01
4.303088e+00 9.222583e-01 1.321346e+00 -5.643152e-01 -8.881687e-02 -8.207678e-01
4.362787e+00 -8.851650e-02 -6.231201e-02 -5.086823e-01 7.287168e-02 8.578648e-01
4.523272e+00 -1.350888e+00 1.400825e-01 -5.086823e-01 7.287168e-02 8.578648e-01
4.247205e+00 1.134859e+00 3.689014e-02 -5.436357e-01 -1.639598e-01 8.231509e-01
4.039716e+00 -2.755294e+00 5.325376e-01 -7.851364e-01 6.193109e-01 3.842511e-03
3.708776e+00 -2.325633e+00 -1.755884e-01 -4.574800e-01 3.098806e-01 8.334782e-01
3.372881e+00 -3.540545e+00 9.173974e-02 -4.574800e-01 3.098806e-01 8.334782e-01
2.979621e+00 -3.975413e+00 6.299912e-01 -4.408976e-01 8.974798e-01 1.180214e-02
1.878458e+00 -4.510948e+00 2.175000e-01 -4.408976e-01 8.974798e-01 1.180214e-02
2.276048e+00 -3.897283e+00 -2.010522e-01 -2.860343e-01 4.932707e-01 8.215038e-01
7.978432e-01 -4.874332e+00 4.556655e-01 -9.496825e-03 9.999000e-01 1.047839e-02
-2.608161e-01 -4.880756e+00 1.091460e-01 -9.496825e-03 9.999000e-01 1.047839e-02
8.298752e-01 -4.286109e+00 -3.840127e-01 -4.570613e-02 5.217811e-01 8.518541e-01
-1.392280e+00 -4.738641e+00 3.495918e-01 4.250035e-01 9.050626e-01 1.528765e-02
-2.342793e+00 -4.286476e+00 5.112305e-03 4.250035e-01 9.050626e-01 1.528765e-02
-1.495359e+00 -4.116315e+00 -4.972808e-01 2.014273e-01 5.218869e-01 8.288915e-01
-3.310233e+00 -3.664661e+00 2.429941e-01 7.770755e-01 6.293404e-01 9.191473e-03
-3.975300e+00 -2.838451e+00 -1.007671e-01 7.770755e-01 6.293404e-01 9.191473e-03
-2.671032e+00 -3.521552e+00 -5.524126e-01 3.011408e-01 3.869885e-01 8.715240e-01
-4.963805e+00 -1.562218e-01 1.096265e-01 9.741945e-01 2.257097e-01 0.000000e+00
-4.718585e+00 -1.214627e+00 -1.905518e-01 9.741945e-01 2.257097e-01 0.000000e+00
-4.016201e+00 -1.708603e+00 -7.082070e-01 5.057429e-01 1.590920e-01 8.478878e-01
-4.567954e+00 1.875312e+00 5.404394e-02 9.744729e-01 -2.245050e-01 -4.073924e-08
-4.337883e+00 6.006958e-01 -8.217959e-01 5.539183e-01 -8.702118e-02 8.280107e-01
-4.404360e+00 -5.921491e-01 -7.038940e-01 5.522851e-01 1.972909e-01 8.099738e-01
-4.351734e+00 -4.311026e-01 5.693174e-01 5.417545e-01 8.251670e-02 -8.364766e-01
-4.399071e+00 1.147670e+00 3.251577e-01 4.855349e-01 -1.543840e-01 -8.604774e-01
-3.533663e+00 -2.612878e+00 6.780391e-01 4.682133e-01 3.238417e-01 -8.221331e-01
-4.163621e+00 -1.525730e+00 5.828755e-01 5.410197e-01 8.272467e-02 -8.369314e-01
-2.649919e+00 -3.465866e+00 7.772685e-01 2.581547e-01 4.431366e-01 -8.584789e-01
-4.920121e-01 -4.347681e+00 8.915542e-01 3.931433e-02 5.503112e-01 -8.340334e-01
-1.672320e+00 -3.979278e+00 8.473721e-01 3.406898e-01 5.093514e-01 -7.902477e-01
1.812082e+00 -4.009885e+00 9.982790e-01 -2.112609e-01 5.288534e-01 -8.219993e-01
2.833701e+00 -3.318676e+00 1.099978e+00 -3.802787e-01 3.554400e-01 -8.538445e-01
3.938607e+00 -2.138547e+00 1.109007e+00 -4.100363e-01 2.558404e-01 -8.754519e-01
4.996007e+00 -1.280711e-01 2.091558e+00 -9.983956e-01 5.554038e-02 1.102738e-02
4.520364e+00 -3.036245e-01 2.696541e+00 -4.959559e-01 6.924840e-02 -8.655822e-01
4.776515e+00 -1.359302e+00 2.316095e+00 -9.756324e-01 1.967234e-01 9.716576e-02
4.185140e+00 -1.347785e+00 2.704855e+00 -4.754675e-01 1.406429e-01 -8.684180e-01
4.572339e+00 1.865549e+00 1.945644e+00 -9.747164e-01 -2.234455e-01 3.479128e-08
4.315690e+00 8.217490e-01 2.821718e+00 -5.633545e-01 -8.958977e-02 -8.213437e-01
4.361164e+00 -2.032719e-01 1.434811e+00 -5.210087e-01 7.664023e-02 8.501036e-01
4.275481e+00 1.039383e+00 1.535456e+00 -5.467095e-01 -1.658742e-01 8.207279e-01
3.293012e+00 -3.754853e+00 2.137627e+00 -7.822036e-01 6.182721e-01 7.679289e-02
4.043807e+00 -2.763196e+00 1.801140e+00 -7.822036e-01 6.182721e-01 7.679289e-02
4.029843e+00 -1.601188e+00 1.346842e+00 -4.529328e-01 1.669765e-01 8.757687e-01
2.164738e+00 -4.473661e+00 2.024799e+00 -4.348452e-01 8.798947e-01 1.915593e-01
1.931580e+00 -3.948089e+00 1.208877e+00 -2.829019e-01 4.952516e-01 8.213965e-01
3.409080e+00 -2.612164e+00 1.263527e+00 -4.219872e-01 3.115839e-01 8.513767e-01
-2.490098e-01 -4.968091e+00 1.912355e+00 -1.045961e-02 9.825050e-01 1.859424e-01
7.163902e-01 -4.308293e+00 1.112334e+00 -4.155049e-02 5.315262e-01 8.460222e-01
-2.634220e+00 -4.230538e+00 1.813759e+00 4.205915e-01 8.946257e-01 1.508234e-01
-1.603235e+00 -4.081598e+00 1.001148e+00 2.066597e-01 5.234317e-01 8.266262e-01
-1.602190e+00 -4.702795e+00 1.837673e+00 4.067041e-01 9.083549e-01 9.738073e-02
-4.763578e-01 -4.433745e+00 1.118534e+00 -6.168025e-02 5.708324e-01 8.187464e-01
-4.368324e+00 -2.417773e+00 1.709370e+00 7.750391e-01 6.255094e-01 8.973397e-02
-3.564644e+00 -3.364126e+00 1.364675e+00 7.750391e-01 6.255094e-01 8.973397e-02
-2.749371e+00 -3.446493e+00 9.359929e-01 3.151723e-01 3.820284e-01 8.687466e-01
-4.964296e+00 -1.562016e-01 1.608528e+00 9.748574e-01 2.228296e-01 0.000000e+00
-4.722459e+00 -1.214211e+00 1.304016e+00 9.748574e-01 2.228296e-01 0.000000e+00
-4.063609e+00 -1.604556e+00 7.896245e-01 5.143016e-01 1.591808e-01 8.427072e-01
-4.578212e+00 1.852380e+00 1.554773e+00 9.750426e-01 -2.220179e-01 1.383875e-08
-4.827332e+00 7.520650e-01 1.086023e+00 9.745305e-01 -2.240767e-01 8.934783e-03
-4.442555e+00 -3.043140e-01 7.626548e-01 4.819260e-01 3.297252e-02 8.755912e-01
-4.282298e+00 9.656172e-01 1.975062e+00 5.458192e-01 -1.648505e-01 -8.215264e-01
-4.227749e+00 -1.427947e+00 2.076779e+00 4.961459e-01 1.546512e-01 -8.543547e-01
-3.703528e+00 -2.503006e+00 2.135270e+00 4.424708e-01 2.756524e-01 -8.533670e-01
-2.913759e+00 -3.392875e+00 2.196815e+00 3.591979e-01 3.789277e-01 -8.528720e-01
-1.921364e+00 -4.026316e+00 2.265937e+00 2.521954e-01 4.573927e-01 -8.527541e-01
-7.997265e-01 -4.377498e+00 2.334972e+00 1.289238e-01 5.054547e-01 -8.531671e-01
3.756078e-01 -4.421809e+00 2.404315e+00 -2.374376e-03 5.206674e-01 -8.537564e-01
1.524139e+00 -4.155742e+00 2.473271e+00 -1.339432e-01 5.019184e-01 -8.544806e-01
2.699686e+00 -3.504565e+00 2.549310e+00 -2.549145e-01 4.493370e-01 -8.562211e-01
3.524799e+00 -2.657372e+00 2.618458e+00 -3.577133e-01 3.688574e-01 -8.578958e-01
-4.877835e+00 -9.576799e-01 2.679369e+00 9.919618e-01 1.265375e-01 -4.573322e-09
-4.582273e+00 1.843214e+00 3.055062e+00 9.752681e-01 -2.210249e-01 -1.481088e-08
-4.859287e+00 6.208927e-01 2.832047e+00 9.752681e-01 -2.210249e-01 -1.481088e-08
-4.319128e+00 8.199227e-01 2.180032e+00 5.618166e-01 -8.730382e-02 8.226421e-01
-4.572298e+00 -1.966723e+00 3.197184e+00 9.598720e-01 2.082465e-01 -1.878276e-01
-4.361733e+00 -2.030253e-01 3.564884e+00 5.209197e-01 7.607643e-02 -8.502089e-01
-4.278947e+00 1.036617e+00 3.463364e+00 5.453765e-01 -1.641744e-01 -8.219557e-01
-3.586441e+00 -3.458495e+00 2.865696e+00 7.803995e-01 6.056562e-01 -1.554255e-01
-3.653517e+00 -2.423063e+00 3.675982e+00 4.627556e-01 3.139685e-01 -8.290242e-01
-1.453564e+00 -4.775290e+00 2.967887e+00 4.430842e-01 8.910016e-01 -9.895761e-02
